ply
format ascii 1.0
element vertex 1245
property float x
property float y
property float z
property uchar red
property uchar green
property uchar blue
end_header
-41.9174 -3.46243 -25.4673  255 255 255
59.2785 -23.1542 -4.01928  255 255 255
-4.08652 -14.5523 35.8496  255 255 255
56.0668 -23.032 -12.0534  255 255 255
23.8808 -19.2174 23.0479  255 255 255
-8.43963 -14.2815 34.9322  255 255 255
-58.2702 -2.3264 -25.6925  255 255 255
-34.801 -7.03703 -21.9344  255 255 255
-19.8869 -11.9929 23.9681  255 255 255
-19.1631 -12.3097 25.1387  255 255 255
-48.1776 -5.3245 -22.8087  255 255 255
-43.5381 -6.46857 -22.5602  255 255 255
-49.5452 -5.3467 -22.9224  255 255 255
-70.6333 -1.48012 -26.2071  255 255 255
53.1015 -25.3122 -9.55598  255 255 255
50.2356 -25.4954 -7.80987  255 255 255
50.2356 -25.4954 -7.80987  255 255 255
-19.3339 -14.2103 25.8031  255 255 255
-4.683 -17.224 35.8565  255 255 255
0.681417 -18.6715 35.7444  255 255 255
-19.399 -14.9348 26.8084  255 255 255
-78.3094 -2.85639 -24.4928  255 255 255
-78.3094 -2.85639 -24.4928  255 255 255
-17.0185 -16.6137 28.8096  255 255 255
54.4834 -29.4187 -4.16601  255 255 255
-56.2785 -10.0178 -17.1216  255 255 255
-56.3135 -10.0064 -17.2847  255 255 255
-51.562 -11.2774 -15.6994  255 255 255
-42.172 -13.174 -14.8038  255 255 255
-10.35 -19.3355 33.6181  255 255 255
64.9602 -33.0996 2.57238  255 255 255
69.9806 -34.1515 13.3692  255 255 255
-46.5573 -12.9667 -14.8291  255 255 255
-55.2281 -11.3355 -15.9797  255 255 255
-49.9116 -12.3312 -14.514  255 255 255
-22.3946 -17.5594 25.9154  255 255 255
16.7576 -24.8353 30.2607  255 255 255
-48.3723 -12.9845 -13.9811  255 255 255
-15.1014 -19.3449 31.2585  255 255 255
-24.5311 -17.9879 25.5912  255 255 255
-17.6037 -19.8053 31.8866  255 255 255
-20.4698 -19.3757 28.9342  255 255 255
-39.8736 -16.4784 -10.8877  255 255 255
-39.693 -16.8384 -10.5303  255 255 255
-20.2673 -19.962 29.1588  255 255 255
-8.50364 -22.1933 33.9186  255 255 255
51.3368 -34.2853 1.63887  255 255 255
54.3322 -34.9531 2.08965  255 255 255
-41.7005 -17.6795 -9.65464  255 255 255
-66.3261 -13.4218 -13.4804  255 255 255
-43.9297 -17.5229 -9.63806  255 255 255
-40.5839 -18.5099 -8.61064  255 255 255
-65.4441 -14.1322 -12.6628  255 255 255
-8.47949 -23.3579 35.246  255 255 255
-22.1654 -21.0558 28.9346  255 255 255
-65.1313 -14.5194 -12.8225  255 255 255
-22.4813 -21.2305 29.5528  255 255 255
-45.0527 -18.5635 -8.21079  255 255 255
-23.3326 -21.3675 29.4446  255 255 255
-6.68239 -24.3149 36.316  255 255 255
-44.8884 -19.5445 -7.17912  255 255 255
-44.0983 -20.3536 -6.26314  255 255 255
-57.639 -18.2591 -7.96375  255 255 255
-57.639 -18.2591 -7.96375  255 255 255
-57.2372 -18.4782 -7.63073  255 255 255
-22.7679 -23.0506 31.4909  255 255 255
4.31533 -28.029 35.4825  255 255 255
-48.0482 -20.6183 -6.42965  255 255 255
-53.3582 -19.6315 -6.58958  255 255 255
-17.7614 -24.5295 32.3401  255 255 255
-46.3842 -21.3585 -4.98729  255 255 255
-62.8612 -18.6332 -7.38481  255 255 255
-60.755 -19.1759 -6.98417  255 255 255
-46.3816 -21.819 -5.16988  255 255 255
22.7905 -34.8147 18.9335  255 255 255
-68.0759 -20.4161 -5.53423  255 255 255
47.7059 -41.8026 10.603  255 255 255
58.6317 -43.8418 13.4691  255 255 255
-61.918 -21.755 -4.34044  255 255 255
-10.0073 -28.9237 37.0305  255 255 255
-55.7529 -23.5827 -1.93198  255 255 255
37.7213 -40.8916 10.5  255 255 255
-54.2562 -24.0622 -1.35056  255 255 255
-55.42 -24.1763 -1.40054  255 255 255
-54.2372 -24.5266 -1.43651  255 255 255
-19.5011 -28.2658 32.0444  255 255 255
-15.5504 -29.1965 37.5904  255 255 255
-44.6615 -27.5686 2.01185  255 255 255
43.7773 -44.8032 15.0234  255 255 255
43.7773 -44.8032 15.0234  255 255 255
35.1225 -43.5461 13.9171  255 255 255
-42.7462 -30.208 4.83082  255 255 255
-63.2501 -26.7428 1.48324  255 255 255
-24.117 -31.3899 25.8681  255 255 255
16.8975 -39.8603 24.9266  255 255 255
-61.8036 -27.0653 1.68111  255 255 255
-1.3427 -35.1299 35.5112  255 255 255
-1.34351 -35.12 35.4614  255 255 255
-62.3021 -27.587 2.54209  255 255 255
-61.6548 -27.6893 2.87804  255 255 255
-60.6849 -27.9621 2.551  255 255 255
42.7456 -47.2433 17.159  255 255 255
32.6048 -45.8865 16.4438  255 255 255
-47.9347 -31.1636 5.985  255 255 255
-24.7706 -33.866 23.8587  255 255 255
-55.4074 -30.854 5.79773  255 255 255
-63.2696 -31.072 6.45799  255 255 255
-63.223 -31.0715 6.57617  255 255 255
-62.0323 -31.327 6.81135  255 255 255
-10.139 -39.2864 30.1533  255 255 255
27.8413 -49.3133 20.6996  255 255 255
-55.9949 -34.4063 9.95626  255 255 255
-51.1529 -36.0238 12.4608  255 255 255
-53.6749 -36.3076 11.9457  255 255 255
21.902 -50.5218 24.483  255 255 255
21.9822 -50.614 24.3276  255 255 255
-52.2056 -37.5065 13.2361  255 255 255
20.3714 -51.2355 25.5232  255 255 255
-30.6911 -42.7802 21.8628  255 255 255
-27.5248 -43.3983 23.2567  255 255 255
-43.8137 -41.9234 16.9068  255 255 255
-41.8839 -42.371 18.3054  255 255 255
-40.8659 -42.6174 18.8086  255 255 255
-62.4054 -39.8763 16.7044  255 255 255
-46.2854 -42.6937 18.4259  255 255 255
-11.4945 -49.5717 28.6931  255 255 255
-44.6685 -44.6865 20.9194  255 255 255
-44.1968 -44.8732 20.8747  255 255 255
-32.9677 -47.6169 23.7319  255 255 255
-48.0576 -45.4818 22.1671  255 255 255
-58.7423 -45.0551 22.3079  255 255 255
-39.2648 -48.4997 24.8217  255 255 255
22.5032 -59.9011 33.9401  255 255 255
-41.3563 -48.5773 25.0384  255 255 255
-51.0398 -47.4113 24.8439  255 255 255
7.35039 -57.8534 32.9061  255 255 255
31.3257 -63.2363 36.4367  255 255 255
-40.4182 -50.0691 26.9917  255 255 255
-51.7454 -48.2928 25.39  255 255 255
-45.0923 -49.5568 26.6435  255 255 255
15.9822 -61.2656 35.3757  255 255 255
-28.7832 -52.7332 29.3847  255 255 255
3.72365 -58.5767 34.3959  255 255 255
-39.9152 -51.2134 28.4953  255 255 255
-39.9152 -51.2134 28.4953  255 255 255
-17.0747 -55.2617 31.6022  255 255 255
-30.1595 -52.8366 30.762  255 255 255
-12.0012 -56.4291 32.2554  255 255 255
-14.2166 -56.0017 32.226  255 255 255
-0.768882 -58.7588 34.7  255 255 255
0.957761 -59.2959 34.8607  255 255 255
-14.7325 -56.431 32.676  255 255 255
14.5167 -62.1268 36.6972  255 255 255
6.51186 -60.5837 36.6197  255 255 255
-49.4872 -50.8612 28.4383  255 255 255
7.28476 -60.968 36.2406  255 255 255
9.32074 -61.4036 36.6567  255 255 255
14.6887 -62.9291 37.5503  255 255 255
-0.702538 -60.1222 36.378  255 255 255
-0.702538 -60.1222 36.378  255 255 255
-35.571 -54.4484 31.3865  255 255 255
16.36 -64.3391 38.7418  255 255 255
17.6721 -64.6154 38.9335  255 255 255
21.03 -65.9584 40.9014  255 255 255
7.97151 -63.7797 39.8019  255 255 255
-15.6707 -59.7567 37.2395  255 255 255
-15.6707 -59.7567 37.2395  255 255 255
0.475764 -63.1012 39.7804  255 255 255
-11.9405 -60.7621 37.9713  255 255 255
-14.9736 -60.5113 38.2084  255 255 255
-0.759458 -63.8534 40.0246  255 255 255
-31.8177 -59.8272 37.9101  255 255 255
-31.2485 -60.3907 38.525  255 255 255
-24.9404 -61.4904 39.7573  255 255 255
-29.167 -61.0241 39.5699  255 255 255
-28.8191 -62.046 40.3636  255 255 255
-2.23268 60.2987 -65.8516  255 255 255
64.6668 67.9152 -111.987  255 255 255
26.5055 59.5217 -90.427  255 255 255
26.8289 54.7213 -92.0613  255 255 255
-7.26875 51.7865 -69.719  255 255 255
53.0337 27.5462 -23.3688  255 255 255
53.4026 26.6386 -23.8721  255 255 255
-26.3721 44.6927 -61.2379  255 255 255
-7.29622 44.2465 -75.8984  255 255 255
-57.485 40.567 -40.0555  255 255 255
-56.7316 39.9958 -41.3275  255 255 255
58.3105 6.99377 15.6085  255 255 255
-5.51629 38.9837 -76.1876  255 255 255
-16.3559 39.7211 -72.8185  255 255 255
52.976 17.563 -28.0335  255 255 255
-62.3662 38.0049 -38.8902  255 255 255
-3.36114 36.2766 -72.6203  255 255 255
-51.8146 36.7076 -47.3854  255 255 255
-14.4149 36.9212 -73.2234  255 255 255
-59.5854 36.2616 -42.9447  255 255 255
47.1931 10.7933 -7.59631  255 255 255
-55.003 35.7515 -46.4165  255 255 255
-70.9289 34.6955 -32.6246  255 255 255
-12.0646 33.0147 -67.8538  255 255 255
-4.99701 31.8391 -67.7089  255 255 255
-82.9975 34.7811 -25.2059  255 255 255
47.0294 17.3283 -43.824  255 255 255
-55.6217 33.5729 -47.0026  255 255 255
-12.1428 30.4198 -65.8483  255 255 255
-62.2127 32.9481 -43.5532  255 255 255
11.8313 23.2585 -59.4436  255 255 255
11.9683 23.4214 -60.3074  255 255 255
-37.541 32.3047 -64.0003  255 255 255
-66.6624 31.3013 -41.2641  255 255 255
59.8932 -0.780023 14.3175  255 255 255
-43.439 30.1014 -58.0942  255 255 255
-21.9035 26.4345 -60.792  255 255 255
-55.7066 29.3087 -50.22  255 255 255
-62.3293 28.5496 -47.0347  255 255 255
47.719 3.44055 -11.8407  255 255 255
-22.9479 22.3869 -54.2641  255 255 255
-54.1743 27.767 -55.6797  255 255 255
36.6834 11.3217 -48.4681  255 255 255
30.4759 11.7277 -48.3245  255 255 255
-54.6554 27.2403 -55.7465  255 255 255
39.2587 9.83706 -47.2176  255 255 255
50.8433 6.98893 -41.745  255 255 255
-59.8758 26.5181 -52.0509  255 255 255
51.2857 6.28046 -41.2307  255 255 255
-74.8526 27.0884 -43.6069  255 255 255
-39.7013 22.742 -55.3663  255 255 255
-39.6756 22.6598 -54.9264  255 255 255
-37.9312 22.2732 -54.714  255 255 255
-5.31572 15.3371 -49.0655  255 255 255
33.0226 7.8824 -43.7056  255 255 255
32.7639 7.76591 -42.7644  255 255 255
-58.1724 24.6732 -54.1747  255 255 255
-65.3785 24.5359 -48.6856  255 255 255
-65.7761 23.7402 -46.2641  255 255 255
-62.5776 23.2565 -51.4089  255 255 255
-62.6155 23.276 -51.5566  255 255 255
-62.6173 22.7875 -54.3146  255 255 255
-63.1719 22.2058 -52.2726  255 255 255
-79.4114 21.0722 -37.627  255 255 255
-70.6783 20.4682 -50.7823  255 255 255
-75.3275 20.2456 -46.8728  255 255 255
43.3887 -3.05627 -31.2896  255 255 255
-35.4067 10.7296 -41.9126  255 255 255
-69.4961 16.1633 -45.6231  255 255 255
-26.7949 7.68687 -39.4454  255 255 255
-37.4963 8.31196 -39.0435  255 255 255
54.1397 -11.6687 -7.47863  255 255 255
-50.5306 9.86223 -40.724  255 255 255
-50.5306 9.86223 -40.724  255 255 255
23.9239 -9.2645 12.0888  255 255 255
-28.2707 5.12217 -35.9702  255 255 255
-54.4429 10.1881 -39.9995  255 255 255
-54.6364 9.62914 -39.2207  255 255 255
-69.197 12.2602 -41.7978  255 255 255
47.0759 -9.94952 -23.2763  255 255 255
9.23305 -10.255 32.2901  255 255 255
-39.4407 4.59644 -34.2036  255 255 255
-38.8048 4.08029 -33.8788  255 255 255
-75.224 11.4247 -40.8961  255 255 255
-13.4768 -7.07163 29.2495  255 255 255
-58.7568 7.27023 -37.2192  255 255 255
-37.8622 3.08588 -33.476  255 255 255
-18.3948 -6.18241 23.3273  255 255 255
-59.4856 5.39312 -34.7645  255 255 255
-46.2349 2.16584 -32.4091  255 255 255
44.0505 -14.9776 -19.0308  255 255 255
-48.6764 2.18685 -31.0365  255 255 255
51.9205 -16.6974 -16.7044  255 255 255
-61.1743 4.30079 -32.8467  255 255 255
50.2922 -16.6001 -18.4344  255 255 255
-45.321 0.608636 -30.5222  255 255 255
-37.1825 -1.41551 -28.4346  255 255 255
12.1483 -14.6585 31.5097  255 255 255
-44.5219 -1.10038 -27.1527  255 255 255
23.1936 -16.6926 20.8963  255 255 255
-41.6547 -2.03759 -27.3903  255 255 255
52.5241 -20.6777 -13.4325  255 255 255
55.3324 -21.8734 -11.9833  255 255 255
-84.9191 3.96253 -31.9467  255 255 255
56.5021 -22.9641 -11.4708  255 255 255
55.3185 -24.0972 -10.2764  255 255 255
-68.8502 -1.51263 -27.4074  255 255 255
56.1585 -24.9822 -9.33661  255 255 255
69.9292 -28.4479 16.9848  255 255 255
-22.4412 -12.5429 23.5077  255 255 255
-38.3826 -9.96229 -18.2213  255 255 255
2.99938 -19.0005 35.3873  255 255 255
-26.1223 -13.4676 20.6763  255 255 255
-43.0241 -9.41321 -18.3866  255 255 255
-47.056 -9.24999 -18.3465  255 255 255
-57.0751 -7.88884 -19.521  255 255 255
-24.4692 -14.9797 22.0756  255 255 255
47.0423 -28.646 -5.26559  255 255 255
-38.2021 -13.2982 -14.9277  255 255 255
52.7425 -30.1048 -3.53632  255 255 255
-55.3124 -10.2207 -16.4651  255 255 255
18.0216 -24.1539 29.3258  255 255 255
-23.5781 -17.7238 25.5215  255 255 255
52.345 -32.2619 -0.00743016  255 255 255
-23.6414 -18.1352 25.4902  255 255 255
69.2903 -35.4951 11.2701  255 255 255
-40.0501 -15.7743 -11.3345  255 255 255
-51.3212 -14.3723 -12.104  255 255 255
-24.0704 -18.9935 27.0658  255 255 255
-43.9849 -16.3622 -10.6965  255 255 255
43.3283 -32.5543 0.574132  255 255 255
-10.2453 -21.9718 34.2096  255 255 255
-21.5591 -20.9724 29.0968  255 255 255
-20.5285 -21.5129 29.5089  255 255 255
-22.0046 -21.3831 29.4433  255 255 255
-50.8193 -17.9513 -8.0146  255 255 255
-22.9385 -21.8224 29.9264  255 255 255
54.2669 -37.8712 5.39747  255 255 255
-50.2127 -18.6582 -8.07888  255 255 255
-21.1346 -22.716 31.0516  255 255 255
-48.572 -19.2722 -7.05807  255 255 255
-24.0903 -22.8021 30.9881  255 255 255
9.87759 -29.3542 35.6064  255 255 255
-16.6823 -24.4528 32.7263  255 255 255
-15.5678 -24.7875 32.6706  255 255 255
-43.5483 -21.5691 -4.946  255 255 255
-51.3487 -20.4248 -6.17668  255 255 255
-51.409 -20.4352 -6.50195  255 255 255
-11.5929 -26.1565 34.537  255 255 255
-14.0097 -26.0551 34.1219  255 255 255
-55.7327 -21.744 -3.56632  255 255 255
-48.536 -23.1055 -2.74329  255 255 255
-52.2368 -23.3967 -2.84912  255 255 255
-50.8764 -23.8477 -1.91546  255 255 255
-51.8366 -24.1176 -1.48745  255 255 255
-53.2667 -24.89 -0.781683  255 255 255
-12.5752 -29.3009 37.2829  255 255 255
-11.0019 -30.0694 37.5541  255 255 255
-4.64493 -32.0878 39.8011  255 255 255
42.9062 -47.4505 17.7054  255 255 255
40.2119 -48.4622 18.677  255 255 255
-21.0572 -35.5624 25.128  255 255 255
-51.6493 -33.2137 7.6273  255 255 255
-61.127 -32.3552 7.90851  255 255 255
-61.4451 -32.5574 8.04321  255 255 255
-45.3399 -36.2692 11.9962  255 255 255
28.2541 -49.8569 22.3324  255 255 255
23.3705 -49.6658 23.3934  255 255 255
-74.5347 -34.1153 11.6602  255 255 255
-53.0331 -37.8354 14.0317  255 255 255
-54.5148 -38.4069 14.1583  255 255 255
-48.6363 -40.2344 16.2999  255 255 255
-46.8786 -41.3179 17.5573  255 255 255
-47.461 -41.4979 17.7762  255 255 255
-42.514 -42.7759 18.3224  255 255 255
-46.5338 -42.8369 19.0971  255 255 255
-46.5196 -42.7908 19.2579  255 255 255
-11.7685 -47.8528 28.6323  255 255 255
-3.69012 -49.7475 29.755  255 255 255
-13.5252 -47.9861 28.2969  255 255 255
-33.4188 -47.3625 23.6024  255 255 255
35.676 -61.3358 33.637  255 255 255
-33.6391 -48.3969 24.8318  255 255 255
-50.531 -46.0918 23.0531  255 255 255
7.63832 -56.7197 31.2334  255 255 255
-56.878 -45.3164 22.5686  255 255 255
-28.8838 -50.0625 26.4942  255 255 255
-46.5116 -47.2317 23.8407  255 255 255
-31.22 -49.7357 26.1326  255 255 255
-32.0201 -50.1722 27.1498  255 255 255
6.47948 -57.5865 31.9662  255 255 255
6.89963 -57.8356 33.3697  255 255 255
10.168 -58.936 33.2813  255 255 255
-28.5137 -51.3824 29.1075  255 255 255
-40.4952 -50.5227 27.2169  255 255 255
6.50803 -58.9043 34.5863  255 255 255
18.7699 -61.7171 35.5547  255 255 255
-15.1726 -55.4801 31.7609  255 255 255
-42.93 -50.9965 27.8974  255 255 255
-16.0357 -55.5152 31.793  255 255 255
-15.499 -55.7135 31.8129  255 255 255
-15.0397 -55.8831 31.7898  255 255 255
-15.0397 -55.8831 31.7898  255 255 255
0.292133 -59.1928 35.0024  255 255 255
0.639996 -59.5948 35.3391  255 255 255
9.89694 -62.0593 36.9269  255 255 255
-63.1992 -49.3721 28.3775  255 255 255
-54.031 -51.0403 29.5036  255 255 255
-16.6712 -57.8717 34.2316  255 255 255
3.04801 -62.1454 37.916  255 255 255
0.283998 -62.2319 37.7557  255 255 255
-52.7169 -52.8188 31.7401  255 255 255
7.48645 -63.4983 40.0496  255 255 255
10.0284 -64.3658 39.7837  255 255 255
3.37034 -63.2366 38.8867  255 255 255
-5.68862 -61.8347 37.767  255 255 255
0.140488 -63.0854 39.9361  255 255 255
-6.81662 -62.1814 38.2522  255 255 255
8.17036 -65.1817 40.8213  255 255 255
22.6439 -69.5973 44.2053  255 255 255
-30.5535 -61.0615 39.0927  255 255 255
-26.1694 -61.7819 39.7686  255 255 255
-24.3556 -63.269 40.8809  255 255 255
55.1487 62.6037 -106.438  255 255 255
12.0432 49.0928 -87.3016  255 255 255
-29.216 45.9412 -56.6507  255 255 255
11.9191 47.7845 -86.9697  255 255 255
51.4996 24.9215 -29.0326  255 255 255
52.3182 23.7801 -25.0797  255 255 255
-16.5298 44.3961 -64.052  255 255 255
-56.4262 39.2537 -42.4738  255 255 255
58.0592 6.74886 14.9187  255 255 255
-36.792 35.643 -60.1197  255 255 255
50.5939 14.6695 -37.3882  255 255 255
-38.6168 33.272 -62.2645  255 255 255
-38.6168 33.272 -62.2645  255 255 255
-13.4988 29.2458 -64.1425  255 255 255
-54.7174 32.6653 -49.0552  255 255 255
39.7821 18.6568 -55.8046  255 255 255
-14.5445 28.3427 -62.0549  255 255 255
18.4929 22.4719 -59.1978  255 255 255
-66.9001 32.2262 -40.9003  255 255 255
-55.2379 31.1726 -48.2807  255 255 255
-0.531815 24.3639 -59.5233  255 255 255
16.812 20.5167 -56.0529  255 255 255
-27.3935 28.9446 -62.973  255 255 255
-55.4138 29.7191 -51.6637  255 255 255
-51.2904 29.0344 -53.9508  255 255 255
-53.4927 29.0818 -52.7446  255 255 255
59.5162 -1.89616 12.2041  255 255 255
-74.0028 30.4115 -41.6331  255 255 255
-55.7225 28.2888 -51.4081  255 255 255
30.3442 13.0282 -49.4074  255 255 255
30.3442 13.0282 -49.4074  255 255 255
-38.8598 25.8558 -58.9683  255 255 255
-73.3005 28.6101 -43.5564  255 255 255
-38.2509 24.7642 -57.153  255 255 255
-46.5075 25.9704 -58.0474  255 255 255
-46.5075 25.9704 -58.0474  255 255 255
-62.7119 26.062 -48.6861  255 255 255
48.4866 4.07858 -40.3591  255 255 255
-66.1709 21.1129 -50.7738  255 255 255
-48.6463 16.8723 -46.5397  255 255 255
-58.482 18.3583 -48.8098  255 255 255
12.0796 -5.90368 27.7466  255 255 255
50.0143 -6.06464 -13.5157  255 255 255
-21.0257 9.07141 -41.0585  255 255 255
41.7102 -3.07658 -31.7104  255 255 255
47.2035 -6.5442 -19.9317  255 255 255
47.7068 -7.38975 -18.7568  255 255 255
48.3318 -7.58464 -16.3892  255 255 255
14.0322 -8.46981 27.6153  255 255 255
-26.6467 5.24387 -35.9221  255 255 255
-69.9577 13.2712 -43.8673  255 255 255
46.1319 -9.74672 -24.5278  255 255 255
43.164 -9.90456 -24.332  255 255 255
3.45151 -9.7977 34.3944  255 255 255
-32.023 3.3439 -35.1733  255 255 255
-50.4863 4.89001 -34.0679  255 255 255
13.8254 -12.949 29.6347  255 255 255
53.7286 -16.3072 -11.3892  255 255 255
25.0056 -15.2566 18.5107  255 255 255
-51.5196 1.45162 -29.5885  255 255 255
-15.8707 -9.96071 28.7305  255 255 255
1.5805 -13.4769 35.9445  255 255 255
1.5805 -13.4769 35.9445  255 255 255
-39.1992 -3.22044 -25.9968  255 255 255
18.5412 -17.3273 25.7546  255 255 255
18.5412 -17.3273 25.7546  255 255 255
55.1759 -22.6075 -11.9983  255 255 255
-26.7601 -9.99607 16.8146  255 255 255
-45.0371 -4.82247 -24.4413  255 255 255
-19.8962 -12.2703 24.1677  255 255 255
-50.5855 -5.10423 -22.876  255 255 255
-45.8448 -6.38936 -22.0647  255 255 255
53.5335 -24.9388 -8.04645  255 255 255
-50.0709 -5.95335 -21.9757  255 255 255
-45.4235 -7.7421 -20.1424  255 255 255
-42.8863 -8.52701 -19.6474  255 255 255
-52.4821 -6.93279 -18.8714  255 255 255
67.2567 -29.2965 3.73661  255 255 255
-16.0151 -15.9073 29.7936  255 255 255
-20.7322 -15.5713 26.9682  255 255 255
-57.5594 -8.42144 -19.8515  255 255 255
-55.2075 -10.8054 -15.599  255 255 255
-23.4436 -17.0515 24.7112  255 255 255
-23.4436 -17.0515 24.7112  255 255 255
8.008 -23.6538 34.1278  255 255 255
-55.6589 -13.465 -14.7142  255 255 255
53.6959 -33.77 0.845956  255 255 255
50.0279 -33.308 0.374116  255 255 255
-42.2986 -16.6037 -10.5341  255 255 255
-40.2727 -17.5861 -9.69423  255 255 255
-18.5089 -22.8208 30.9971  255 255 255
-22.2276 -22.3899 30.807  255 255 255
-55.1416 -19.1016 -6.86223  255 255 255
-50.1137 -20.678 -5.6152  255 255 255
-62.4502 -19.1076 -6.86932  255 255 255
-62.4502 -19.1076 -6.86932  255 255 255
-58.714 -20.5421 -5.25702  255 255 255
-58.0946 -20.9964 -5.33664  255 255 255
-57.8749 -20.9343 -4.5573  255 255 255
-47.0962 -23.1161 -2.98225  255 255 255
-52.6836 -22.3951 -3.04761  255 255 255
-68.1788 -20.8525 -5.00003  255 255 255
4.03241 -32.6798 37.4693  255 255 255
54.3918 -45.4657 14.9384  255 255 255
44.195 -44.5261 13.8971  255 255 255
44.1891 -45.2992 14.9032  255 255 255
-20.8324 -33.5121 27.2071  255 255 255
-4.63525 -37.4006 34.4359  255 255 255
-22.3602 -40.184 26.1092  255 255 255
20.8795 -50.8088 25.3814  255 255 255
-19.0287 -41.9591 28.4447  255 255 255
-45.4912 -39.3872 15.3309  255 255 255
-41.9747 -40.2425 16.1857  255 255 255
-1.35212 -49.5312 29.181  255 255 255
-1.35212 -49.5312 29.181  255 255 255
34.8417 -61.1353 33.9056  255 255 255
-43.1236 -47.2218 23.7732  255 255 255
-50.4201 -48.4522 26.0059  255 255 255
-13.9941 -55.2128 31.726  255 255 255
-23.8752 -54.5051 31.0612  255 255 255
-42.9464 -51.7464 28.8603  255 255 255
-10.3575 -57.6942 32.7846  255 255 255
-10.411 -58.1527 33.9162  255 255 255
-40.4871 -53.4775 30.6635  255 255 255
-40.8448 -53.9372 31.0479  255 255 255
17.6596 -64.9611 40.1049  255 255 255
-30.0944 -56.3195 34.5972  255 255 255
-30.0944 -56.3195 34.5972  255 255 255
10.4303 -64.3897 39.4279  255 255 255
-14.9216 -62.2586 39.136  255 255 255
19.8685 -69.3249 44.2134  255 255 255
-29.428 -60.1397 37.7548  255 255 255
18.3518 -69.8314 45.0223  255 255 255
16.0748 -70.3772 45.721  255 255 255
65.5685 66.1324 -109.434  255 255 255
5.56506 54.0841 -76.0175  255 255 255
16.5075 52.9065 -84.9015  255 255 255
-39.9088 47.9164 -47.2807  255 255 255
-31.6853 48.2549 -55.8373  255 255 255
15.1182 49.585 -91.2947  255 255 255
-31.4963 45.7536 -57.8356  255 255 255
-8.05137 45.9789 -74.8353  255 255 255
-49.837 41.6699 -45.4678  255 255 255
-56.208 41.289 -39.5882  255 255 255
-15.8325 42.2479 -67.6126  255 255 255
-10.5685 41.4607 -74.2693  255 255 255
47.8086 13.1186 -5.96931  255 255 255
-6.3737 35.4961 -72.02  255 255 255
48.2044 19.0438 -40.1395  255 255 255
51.5221 8.15111 1.9368  255 255 255
-32.3575 36.1696 -63.7621  255 255 255
-5.96626 32.6708 -68.9078  255 255 255
-38.9351 34.1559 -60.9388  255 255 255
32.2003 22.4062 -61.0229  255 255 255
-55.6639 33.031 -47.7305  255 255 255
-66.1816 33.2531 -40.882  255 255 255
-8.65998 28.4673 -63.9684  255 255 255
-36.2032 32.004 -65.0593  255 255 255
-15.1442 27.5349 -61.6756  255 255 255
26.0091 16.5829 -50.6965  255 255 255
-72.0611 30.0156 -36.6964  255 255 255
-54.5516 29.8368 -51.8647  255 255 255
-32.3779 26.7346 -58.7174  255 255 255
62.4202 -3.59837 18.0925  255 255 255
-54.9044 27.7963 -53.7409  255 255 255
27.6649 12.2618 -47.8927  255 255 255
-56.9844 25.9947 -47.8884  255 255 255
-78.0913 27.3147 -37.1922  255 255 255
-74.178 28.159 -45.3891  255 255 255
-64.2172 26.4459 -47.688  255 255 255
-46.6621 24.7259 -56.7941  255 255 255
-41.6864 23.4423 -55.6329  255 255 255
-61.1224 25.8643 -51.3422  255 255 255
-63.8226 24.8834 -49.4251  255 255 255
-58.5105 24.6275 -54.0057  255 255 255
47.3288 0.232791 -13.7623  255 255 255
-46.3233 21.5659 -51.7398  255 255 255
6.4692 -1.51292 24.5581  255 255 255
-48.6211 20.083 -49.9887  255 255 255
63.6403 -9.37903 16.3956  255 255 255
48.3688 -2.68932 -15.1676  255 255 255
-79.7568 22.5543 -38.7597  255 255 255
-80.4158 22.0043 -38.8875  255 255 255
-78.7253 22.0433 -41.384  255 255 255
-62.506 20.6723 -51.5935  255 255 255
-73.6129 21.0668 -45.646  255 255 255
-71.0124 15.7909 -47.0945  255 255 255
-7.12059 -5.41502 31.2588  255 255 255
60.5249 -13.0869 6.16107  255 255 255
43.5251 -10.1943 -23.9406  255 255 255
5.60635 -10.9384 34.1837  255 255 255
62.426 -17.4277 5.49816  255 255 255
67.7107 -20.0379 18.2623  255 255 255
-65.25 6.37996 -36.7514  255 255 255
-65.25 6.37996 -36.7514  255 255 255
56.4125 -17.5371 -6.29212  255 255 255
-50.4134 1.83611 -30.7508  255 255 255
46.0578 -16.3984 -18.4365  255 255 255
-41.8404 -0.692392 -29.6763  255 255 255
-36.4251 -2.00611 -27.7507  255 255 255
-20.3621 -8.87275 20.8708  255 255 255
-51.6929 -0.0200379 -29.4184  255 255 255
54.513 -20.2514 -14.6271  255 255 255
53.8084 -21.1169 -13.0551  255 255 255
-40.3835 -4.74645 -23.9398  255 255 255
66.5444 -25.5161 11.4416  255 255 255
-22.4387 -11.1821 22.6059  255 255 255
54.9018 -23.3985 -11.813  255 255 255
-21.245 -12.2161 23.759  255 255 255
53.7003 -24.4446 -9.61926  255 255 255
57.2154 -26.7054 -7.72123  255 255 255
0.723004 -18.3162 35.9546  255 255 255
6.97425 -20.1757 33.9143  255 255 255
47.6067 -26.7696 -5.62466  255 255 255
-37.8519 -11.3648 -16.1407  255 255 255
-22.1875 -15.6502 26.4725  255 255 255
-56.8306 -9.05373 -18.3095  255 255 255
20.398 -23.8357 29.4416  255 255 255
-17.2437 -17.1456 29.0357  255 255 255
4.7996 -21.6914 34.2799  255 255 255
-22.0232 -16.9474 26.4325  255 255 255
2.96287 -22.9894 34.1925  255 255 255
-3.01029 -22.0791 35.5694  255 255 255
-18.1986 -19.6438 31.3155  255 255 255
53.5315 -36.6226 3.52178  255 255 255
-17.7619 -22.689 31.0482  255 255 255
-24.3699 -21.6596 30.0244  255 255 255
3.40101 -26.9885 35.9586  255 255 255
-19.098 -23.2705 31.3563  255 255 255
2.71154 -27.2185 35.8297  255 255 255
-6.2758 -28.1564 35.784  255 255 255
46.7646 -41.9022 10.4669  255 255 255
-67.403 -21.5627 -4.0214  255 255 255
-62.6848 -22.5064 -3.26633  255 255 255
-50.6385 -25.1454 -0.635555  255 255 255
-57.4778 -29.0839 3.33481  255 255 255
-58.8732 -28.8626 3.75699  255 255 255
-44.628 -32.2278 7.10858  255 255 255
-20.5936 -35.2561 26.2218  255 255 255
-51.5876 -32.4561 7.34618  255 255 255
47.9407 -51.5422 21.5115  255 255 255
-9.99274 -39.0099 30.75  255 255 255
-9.00965 -42.204 28.7657  255 255 255
-45.7777 -39.9671 16.0064  255 255 255
6.8973 -55.0474 31.4704  255 255 255
-49.677 -46.2554 23.3955  255 255 255
-49.677 -46.2554 23.3955  255 255 255
-39.7218 -48.6497 24.3843  255 255 255
-2.47555 -56.5386 31.507  255 255 255
41.1506 -65.7486 37.923  255 255 255
29.6023 -63.6671 35.9699  255 255 255
-18.3135 -55.2931 31.7043  255 255 255
17.4578 -64.9236 39.4364  255 255 255
-31.7242 -56.957 35.4935  255 255 255
-11.4532 -61.8445 38.5598  255 255 255
-35.0876 -59.8975 37.9887  255 255 255
-14.0158 -64.1854 41.2952  255 255 255
-27.1693 -62.5428 40.359  255 255 255
13.2187 51.7502 -85.6568  255 255 255
2.15798 44.7007 -84.2112  255 255 255
47.8196 24.0072 -37.7551  255 255 255
-15.1758 39.2677 -71.7559  255 255 255
35.5973 26.4565 -66.4242  255 255 255
33.0347 25.5609 -65.2702  255 255 255
-19.562 28.7623 -62.8074  255 255 255
56.104 1.85534 6.1644  255 255 255
54.2267 2.02149 2.44613  255 255 255
-6.46832 20.7935 -54.0652  255 255 255
46.774 3.9802 -13.0881  255 255 255
-34.0776 21.4011 -53.566  255 255 255
-54.5218 24.992 -53.8748  255 255 255
-64.4199 25.6127 -48.8941  255 255 255
-69.0326 24.8528 -45.6056  255 255 255
-21.4783 16.6615 -49.1191  255 255 255
-33.0237 18.1927 -49.4921  255 255 255
-66.7725 22.8742 -49.3096  255 255 255
-76.2866 21.0085 -47.6743  255 255 255
-76.3463 18.3957 -41.553  255 255 255
-59.4012 14.9065 -45.7666  255 255 255
7.1728 -8.35318 32.4265  255 255 255
-47.6546 7.90977 -37.9919  255 255 255
-62.2229 7.45464 -36.9215  255 255 255
49.6952 -13.6652 -20.5253  255 255 255
49.6952 -13.6652 -20.5253  255 255 255
57.1638 -18.6029 -6.46525  255 255 255
57.3014 -18.587 -6.75684  255 255 255
-61.9389 4.0184 -32.0108  255 255 255
-61.9389 4.0184 -32.0108  255 255 255
46.2561 -17.5061 -17.4318  255 255 255
-84.9128 7.14044 -36.309  255 255 255
-5.1218 -13.0096 35.3874  255 255 255
-40.345 -5.94719 -22.8578  255 255 255
-39.5005 -7.12208 -22.0115  255 255 255
-39.489 -7.12588 -21.4113  255 255 255
56.5865 -26.1798 -8.79489  255 255 255
-39.9718 -9.4314 -18.2439  255 255 255
-18.1857 -15.5229 27.7953  255 255 255
45.0809 -27.8416 -4.24735  255 255 255
-42.7814 -15.5698 -12.2014  255 255 255
-8.80665 -27.6355 35.4177  255 255 255
-15.3683 -27.7209 35.9954  255 255 255
-12.9124 -28.3231 33.9779  255 255 255
-51.3645 -25.7235 0.934538  255 255 255
-51.541 -25.7816 0.289401  255 255 255
-55.05 -25.4172 -1.7337  255 255 255
45.8246 -44.5261 13.9595  255 255 255
-43.7245 -28.3744 2.65362  255 255 255
-43.7245 -28.3744 2.65362  255 255 255
-73.1191 -29.174 5.69281  255 255 255
-51.4451 -33.4345 9.23466  255 255 255
47.1645 -52.1724 22.3378  255 255 255
-42.9155 -42.2616 17.8029  255 255 255
-50.5721 -44.6588 21.4278  255 255 255
-33.2066 -48.1698 24.5065  255 255 255
-49.9115 -45.5566 23.1017  255 255 255
-52.4317 -45.8489 23.5787  255 255 255
-40.4416 -48.8296 25.6005  255 255 255
-54.3922 -47.0481 24.7854  255 255 255
7.73805 -58.4659 32.5142  255 255 255
24.3645 -61.65 35.8458  255 255 255
12.4776 -62.2757 37.4892  255 255 255
-41.5204 -53.1188 30.5385  255 255 255
-7.8893 -60.3143 36.3773  255 255 255
54.2238 28.633 -20.025  255 255 255
52.6456 19.1175 -30.2472  255 255 255
-52.7621 38.2004 -46.2503  255 255 255
24.5328 25.603 -63.8926  255 255 255
14.288 22.3595 -60.3071  255 255 255
27.9695 14.1332 -49.582  255 255 255
32.9353 12.7076 -48.7234  255 255 255
-75.8361 25.1494 -38.2329  255 255 255
-64.3146 23.1212 -47.6961  255 255 255
-62.2608 23.5928 -54.5467  255 255 255
-76.7114 22.1456 -42.8684  255 255 255
-41.1803 7.18408 -37.8526  255 255 255
-35.8035 6.09236 -36.8447  255 255 255
46.5982 -10.5475 -23.1414  255 255 255
-60.4753 3.17281 -31.7085  255 255 255
-26.9974 -7.63013 14.1245  255 255 255
57.336 -21.4965 -9.60898  255 255 255
-41.0488 -3.59877 -25.6376  255 255 255
-53.5067 -12.3429 -16.5779  255 255 255
-21.7017 -18.163 26.7719  255 255 255
-7.55016 -24.1612 35.9828  255 255 255
-19.3574 -25.2541 33.9248  255 255 255
-48.0145 -25.9912 -0.639541  255 255 255
-29.5461 -28.8004 15.264  255 255 255
-51.9975 -28.8422 4.75688  255 255 255
43.5637 -48.0512 16.765  255 255 255
-41.5756 -40.8702 16.4664  255 255 255
-47.6046 -39.9953 15.7224  255 255 255
-7.26883 -46.8981 31.6128  255 255 255
29.9585 -64.2305 37.6521  255 255 255
29.9585 -64.2305 37.6521  255 255 255
24.901 -63.8367 38.6394  255 255 255
1.27553 -59.8632 36.2651  255 255 255
22.908 -65.7239 40.2807  255 255 255
15.5161 -65.1121 40.2114  255 255 255
25.0511 -67.0789 41.1797  255 255 255
17.7706 -65.7641 40.6773  255 255 255
48.7901 61.7658 -102.058  255 255 255
-0.88012 46.0846 -82.618  255 255 255
53.1083 16.6123 -29.8378  255 255 255
47.3828 16.9757 -44.7014  255 255 255
20.4579 22.0637 -58.6925  255 255 255
-50.4415 27.9608 -57.6192  255 255 255
-51.8823 26.4594 -56.7476  255 255 255
-13.7487 -2.3134 25.0043  255 255 255
-76.7975 17.9103 -45.7079  255 255 255
-9.65775 -6.80051 33.3448  255 255 255
55.1908 -23.4419 -9.71443  255 255 255
54.5431 -25.1306 -8.6  255 255 255
-6.5308 -16.6956 35.5915  255 255 255
-6.5308 -16.6956 35.5915  255 255 255
54.0186 -28.4687 -5.38214  255 255 255
43.9101 -31.6583 0.199633  255 255 255
-24.889 -20.766 29.0196  255 255 255
-10.3979 -23.4266 34.8917  255 255 255
-20.4554 -23.4196 31.1334  255 255 255
-49.0584 -22.7036 -3.64765  255 255 255
-48.0061 -23.7718 -3.12566  255 255 255
-48.0061 -23.7718 -3.12566  255 255 255
-53.7655 -22.9408 -2.86295  255 255 255
-28.1619 -28.332 19.3821  255 255 255
-45.9437 -31.2838 6.04452  255 255 255
3.98185 -37.9415 32.5511  255 255 255
-1.80538 -40.8504 30.9731  255 255 255
-46.5051 -37.693 13.2632  255 255 255
-42.5498 -43.7922 19.9653  255 255 255
-50.3736 -46.5207 22.8631  255 255 255
-53.5953 -48.2906 26.1143  255 255 255
-20.79 -54.6796 30.8972  255 255 255
2.41768 -63.3387 38.6279  255 255 255
1.96467 -63.9263 39.939  255 255 255
-21.3925 -20.2586 28.1383  255 255 255
-22.1157 -36.7656 23.0757  255 255 255
-43.7453 -43.1317 17.494  255 255 255
28.3513 -63.0586 35.9163  255 255 255
24.5035 -65.0856 39.3559  255 255 255
16.7782 -65.1119 40.0221  255 255 255
11.7613 -67.9345 43.5878  255 255 255
19.1288 53.4128 -89.2485  255 255 255
59.0638 -5.71058 8.49469  255 255 255
-20.6746 -10.6565 22.5808  255 255 255
-16.298 -25.1404 32.8541  255 255 255
-23.0525 -10.1467 19.5542  255 255 255
-10.6844 -61.3471 37.88  255 255 255
-2.89003 -15.803 35.0728  255 255 255
-19.6342 -17.4818 30.549  255 255 255
-47.1777 35.6419 -51.9926  255 255 255
19.1381 94.7308 -51.0418  255 255 255
54.8191 51.1566 -1.12357  255 255 255
52.5954 54.6255 -6.22419  255 255 255
58.2212 47.3965 1.41622  255 255 255
60.4811 99.9044 -76.8752  255 255 255
-56.681 69.506 -16.6694  255 255 255
58.0984 95.8583 -79.6705  255 255 255
-10.796 78.3441 -43.1671  255 255 255
54.0843 25.4475 21.4812  255 255 255
55.4132 42.7789 -6.16357  255 255 255
55.3266 39.551 -6.59129  255 255 255
54.0389 21.8477 19.0866  255 255 255
-44.3456 65.0222 -29.369  255 255 255
57.3007 18.1567 22.396  255 255 255
50.2619 24.6952 10.2927  255 255 255
17.0214 75.9433 -69.0289  255 255 255
-43.4541 61.8645 -32.4031  255 255 255
-39.9054 62.0437 -34.7749  255 255 255
-39.9054 62.0437 -34.7749  255 255 255
-17.2179 65.949 -48.8139  255 255 255
52.211 19.6834 13.3558  255 255 255
52.1379 19.2694 14.1216  255 255 255
-43.1308 59.5124 -34.4059  255 255 255
52.4455 17.3868 13.6761  255 255 255
48.0111 41.1176 -27.6305  255 255 255
27.0455 73.5188 -79.5559  255 255 255
-50.7218 56.9717 -31.1572  255 255 255
-49.7734 56.7035 -32.2031  255 255 255
19.9322 68.5248 -72.9951  255 255 255
57.7087 10.6048 21.5269  255 255 255
-50.1519 56.682 -32.4837  255 255 255
49.3238 37.4294 -24.9721  255 255 255
-7.39719 62.8074 -60.2569  255 255 255
50.47 34.0997 -25.3149  255 255 255
10.1908 65.4807 -72.0456  255 255 255
58.9431 9.90574 17.7167  255 255 255
23.4033 64.0541 -77.8317  255 255 255
2.10724 62.2011 -69.3748  255 255 255
49.2189 17.1654 0.754674  255 255 255
57.4645 7.16481 17.9598  255 255 255
53.9494 27.463 -20.4283  255 255 255
51.4887 30.6349 -27.1699  255 255 255
51.9487 29.1462 -25.1139  255 255 255
55.4738 9.972 11.2077  255 255 255
11.0498 60.4437 -74.8007  255 255 255
49.5922 30.344 -29.1745  255 255 255
65.8922 67.0526 -106.729  255 255 255
65.8922 67.0526 -106.729  255 255 255
53.1294 9.89945 6.82303  255 255 255
-20.1092 53.5698 -58.497  255 255 255
53.5396 8.65476 7.98217  255 255 255
56.7637 20.526 -20.9507  255 255 255
-65.827 45.7924 -31.7095  255 255 255
47.5203 28.7825 -36.346  255 255 255
-65.5073 44.8562 -31.4  255 255 255
50.983 6.43834 0.660148  255 255 255
49.6427 8.42026 -3.79401  255 255 255
49.1267 8.07311 -4.87905  255 255 255
-43.8637 43.628 -48.3903  255 255 255
48.4515 22.3593 -37.1933  255 255 255
57.399 -0.901183 10.8566  255 255 255
50.8336 6.66321 -4.37268  255 255 255
6.62768 49.032 -82.271  255 255 255
-40.8374 42.6993 -50.0507  255 255 255
49.7709 6.76052 -5.23581  255 255 255
-46.8277 41.6062 -46.7205  255 255 255
57.1256 -0.491833 7.19802  255 255 255
50.0713 6.04615 -5.17401  255 255 255
-49.6751 40.8272 -46.0965  255 255 255
54.1708 0.980943 2.3199  255 255 255
-66.2396 38.441 -35.5847  255 255 255
-55.2462 39.5904 -43.1896  255 255 255
-9.64781 44.1656 -73.0029  255 255 255
51.9718 2.55347 -2.88373  255 255 255
-71.5253 38.1762 -34.14  255 255 255
-68.0136 38.0528 -35.9788  255 255 255
19.9736 41.7519 -82.3405  255 255 255
-77.7812 36.9588 -29.4038  255 255 255
-70.5811 37.653 -33.9549  255 255 255
-70.0419 37.2935 -33.9534  255 255 255
57.5363 -3.65404 7.70243  255 255 255
-67.6821 37.4938 -36.2381  255 255 255
-76.9055 34.0253 -32.2171  255 255 255
-28.7686 38.04 -65.1372  255 255 255
-60.7351 34.2574 -42.9251  255 255 255
-65.2857 34.1423 -40.5822  255 255 255
55.4182 -5.15475 0.138137  255 255 255
56.9183 -6.39324 2.59561  255 255 255
54.9686 -5.66472 0.0529711  255 255 255
-15.1052 -4.02562 25.5461  255 255 255
-5.52573 -9.25445 34.4715  255 255 255
57.8293 -10.6073 4.82246  255 255 255
-65.4349 30.6994 -43.2034  255 255 255
-7.3985 -9.4978 33.8138  255 255 255
-13.8875 27.1854 -62.8892  255 255 255
-4.6689 -11.1476 35.4793  255 255 255
-80.2208 28.6438 -33.8502  255 255 255
-62.7748 29.7428 -46.1594  255 255 255
57.5169 -11.0071 -0.147623  255 255 255
-66.7434 28.2803 -46.2855  255 255 255
-21.0027 22.4378 -55.982  255 255 255
58.9912 -13.566 1.25376  255 255 255
-75.5063 26.7622 -39.0188  255 255 255
-80.3331 25.6238 -37.5614  255 255 255
57.6123 -15.3462 -3.23754  255 255 255
-24.7201 -3.34273 8.26992  255 255 255
59.7053 -18.1243 -0.172773  255 255 255
-23.8501 -4.41014 9.7393  255 255 255
57.109 -16.7476 -4.5997  255 255 255
-77.8429 21.8457 -42.0566  255 255 255
-26.0801 -5.56049 11.2259  255 255 255
-26.9543 -5.65224 11.673  255 255 255
-14.8328 -15.8327 31.2944  255 255 255
-13.4002 -16.5608 31.5556  255 255 255
-23.2821 5.66871 -37.7833  255 255 255
4.17342 -22.2757 34.4316  255 255 255
-13.4684 -17.8179 31.9965  255 255 255
-5.26688 -21.1096 35.1171  255 255 255
-9.2389 -23.1887 35.3669  255 255 255
-15.9119 -22.4854 32.5805  255 255 255
-53.3445 -3.03501 -25.2594  255 255 255
-14.7407 -26.6656 34.6934  255 255 255
-15.8786 -26.862 35.1856  255 255 255
-13.8438 -29.8626 36.2428  255 255 255
-2.69496 -33.2609 37.4705  255 255 255
-49.4836 -13.5595 -13.6414  255 255 255
-11.6533 -32.0046 35.0686  255 255 255
-26.9802 -27.2608 21.1547  255 255 255
-27.4483 -27.2752 20.9209  255 255 255
-8.97277 -34.1282 34.779  255 255 255
-10.83 -33.5591 33.8668  255 255 255
-21.915 -31.0312 26.2743  255 255 255
-53.8413 -18.9599 -5.91255  255 255 255
-8.981 -35.6682 32.9289  255 255 255
-44.0636 -22.1669 -3.62426  255 255 255
-22.2486 -33.4884 24.2499  255 255 255
-18.4296 -35.4435 27.2634  255 255 255
-21.0282 -34.6529 25.7343  255 255 255
-48.9394 -25.3531 -0.4224  255 255 255
-45.8627 -26.192 0.664649  255 255 255
-55.936 -31.425 8.32434  255 255 255
-47.3697 -34.424 9.35802  255 255 255
-45.5502 -35.6228 11.7652  255 255 255
-43.7354 -39.6481 15.2506  255 255 255
49.058 60.1235 -14.6338  255 255 255
-66.3644 67.1218 -11.3487  255 255 255
47.0217 94.653 -72.7237  255 255 255
65.7063 98.3548 -83.7474  255 255 255
63.9613 97.6381 -82.3847  255 255 255
-1.22247 68.4951 -38.1703  255 255 255
58.8615 90.302 -84.3026  255 255 255
29.6855 82.7432 -71.435  255 255 255
53.7919 22.6345 18.0406  255 255 255
0.147866 72.7778 -56.9662  255 255 255
57.1241 13.2129 23.8685  255 255 255
11.0739 71.8921 -67.0199  255 255 255
-51.763 58.9968 -28.9026  255 255 255
-68.148 55.7206 -19.2295  255 255 255
6.51684 68.8998 -63.3284  255 255 255
15.5394 69.2074 -68.7198  255 255 255
53.8405 77.3167 -92.6469  255 255 255
53.4175 18.0085 10.5354  255 255 255
-51.0994 56.8742 -31.5195  255 255 255
21.3297 69.3935 -75.5809  255 255 255
50.856 16.2619 9.65179  255 255 255
19.7698 62.7919 -75.9043  255 255 255
18.869 62.9491 -76.6824  255 255 255
11.7516 61.3033 -71.7502  255 255 255
-62.1452 50.8615 -29.4929  255 255 255
-28.4161 54.2008 -50.2425  255 255 255
56.1728 6.07299 12.3036  255 255 255
-42.8978 49.0038 -44.5913  255 255 255
-27.7747 50.4025 -53.6027  255 255 255
53.383 7.25382 3.63637  255 255 255
48.2824 11.6733 -5.13627  255 255 255
58.173 1.47435 9.8776  255 255 255
53.4508 4.80174 2.84487  255 255 255
52.1802 5.38016 1.36693  255 255 255
46.927 9.84038 -8.00034  255 255 255
-60.6815 41.2209 -37.2508  255 255 255
10.2101 51.2647 -87.5692  255 255 255
57.1137 -0.179019 7.55933  255 255 255
-16.2509 44.36 -67.5407  255 255 255
-6.45616 42.8474 -77.2695  255 255 255
-64.6017 37.1108 -38.2886  255 255 255
-76.6197 34.3725 -31.6308  255 255 255
-77.0899 32.8104 -31.9833  255 255 255
-64.7896 32.8537 -42.3948  255 255 255
57.2535 -9.76019 2.44049  255 255 255
-8.5504 -10.6459 34.1535  255 255 255
-18.1225 -2.37317 11.5123  255 255 255
-22.3004 -0.587377 5.55928  255 255 255
-27.1374 19.0649 -51.34  255 255 255
-59.9612 26.2981 -55.2317  255 255 255
-80.9451 23.584 -38.8688  255 255 255
-16.2503 -12.1891 29.0531  255 255 255
-38.3156 16.0732 -47.6499  255 255 255
-20.3576 9.84719 -40.5446  255 255 255
-26.2895 -6.08773 11.6178  255 255 255
5.70073 -19.9794 34.6717  255 255 255
-19.9096 9.35771 -42.6758  255 255 255
13.0421 -22.9302 32.6304  255 255 255
-27.362 5.46335 -36.3529  255 255 255
-7.66299 -20.443 34.7405  255 255 255
55.4356 -21.5795 -11.0383  255 255 255
-46.0096 6.78411 -36.8224  255 255 255
-7.18558 -21.1905 34.0966  255 255 255
58.0858 -24.2669 -8.03356  255 255 255
-18.8514 -21.7496 30.8762  255 255 255
-32.9626 -7.8236 -20.6398  255 255 255
-37.1902 -11.3448 -16.6472  255 255 255
-18.3188 -28.2848 32.289  255 255 255
-25.2467 -26.5302 24.1645  255 255 255
-52.5839 -17.892 -7.53339  255 255 255
-24.1493 -29.7188 27.1427  255 255 255
-42.6233 -20.6207 -6.63783  255 255 255
-53.9307 -19.177 -6.57976  255 255 255
-44.4188 -21.938 -4.08085  255 255 255
-27.0506 -29.8525 20.2122  255 255 255
-26.1616 -30.2426 20.3077  255 255 255
-5.10466 -38.0196 35.1835  255 255 255
52.1908 30.6028 22.0405  255 255 255
52.2936 30.0676 20.4466  255 255 255
29.3645 80.7715 -72.6043  255 255 255
51.4241 23.3109 13.593  255 255 255
-70.9226 55.9671 -17.8406  255 255 255
23.941 73.3894 -73.8574  255 255 255
24.7345 73.4814 -76.8945  255 255 255
24.7345 73.4814 -76.8945  255 255 255
58.6915 12.5208 18.4066  255 255 255
20.9733 67.6615 -76.4961  255 255 255
29.1093 66.25 -85.2588  255 255 255
65.9937 68.8441 -107.701  255 255 255
51.6519 12.8318 3.64694  255 255 255
48.3023 15.4152 -2.16892  255 255 255
6.94199 57.6517 -72.983  255 255 255
7.31049 57.2453 -75.0635  255 255 255
50.1282 12.3863 0.477929  255 255 255
50.9192 11.4437 1.22874  255 255 255
31.3866 59.6699 -91.0464  255 255 255
56.6667 1.84236 11.7593  255 255 255
-51.3772 44.4224 -42.1324  255 255 255
4.74153 50.1578 -83.2665  255 255 255
53.0038 3.85645 0.131211  255 255 255
-63.338 41.2884 -38.3294  255 255 255
-62.8659 39.944 -37.0375  255 255 255
54.3817 0.471283 1.49142  255 255 255
50.903 3.68611 -4.70268  255 255 255
52.6036 14.792 -32.5775  255 255 255
-64.5688 37.5818 -37.4358  255 255 255
-71.3079 37.0339 -33.6088  255 255 255
-40.143 35.6287 -57.4654  255 255 255
-11.032 -6.78912 31.1371  255 255 255
-11.032 -6.78912 31.1371  255 255 255
58.4388 -9.87352 3.34461  255 255 255
-13.996 19.265 -52.7872  255 255 255
-3.57764 -14.317 36.0724  255 255 255
-26.107 -4.06971 9.00669  255 255 255
-22.4386 6.76699 -39.0985  255 255 255
-25.2634 -14.9651 22.1542  255 255 255
-6.57077 -30.9717 38.7766  255 255 255
-46.2848 -19.5542 -7.01168  255 255 255
-50.101 -20.6498 -5.45722  255 255 255
-24.5987 -33.8708 23.382  255 255 255
-63.7258 -23.228 -2.3987  255 255 255
-12.7991 83.1929 -37.8629  255 255 255
-12.7991 83.1929 -37.8629  255 255 255
46.942 42.4789 -29.6905  255 255 255
38.4091 74.7053 -90.4806  255 255 255
35.1375 72.8328 -87.228  255 255 255
11.3963 63.9364 -72.2621  255 255 255
30.5611 66.4213 -82.3739  255 255 255
-12.5805 54.2063 -63.0737  255 255 255
4.73405 55.8931 -72.7318  255 255 255
54.1029 8.82482 6.44098  255 255 255
-13.6696 50.2968 -67.8703  255 255 255
-34.5194 44.9807 -53.8546  255 255 255
48.4818 4.27324 -9.36359  255 255 255
-77.2323 33.6427 -32.3617  255 255 255
-63.3618 29.3416 -47.2285  255 255 255
-14.1823 18.4651 -53.102  255 255 255
53.3581 -12.5698 -10.5413  255 255 255
57.9393 -17.1323 -4.41136  255 255 255
57.9393 -17.1323 -4.41136  255 255 255
-10.0891 -18.3281 33.6788  255 255 255
56.6632 -22.2824 -8.85533  255 255 255
58.0557 -23.5995 -8.1369  255 255 255
5.04143 -37.4091 33.2104  255 255 255
-55.3401 -24.0799 -1.72655  255 255 255
-54.3006 -25.3863 0.173785  255 255 255
-54.3006 -25.3863 0.173785  255 255 255
-46.8346 -27.2932 1.73384  255 255 255
-35.727 75.0962 -26.1353  255 255 255
3.36801 60.5048 -77.0907  255 255 255
-52.6687 38.8024 -46.4454  255 255 255
52.2901 -3.79678 -3.0425  255 255 255
6.84954 -20.0558 34.2086  255 255 255
-29.3055 -19.7877 11.2737  255 255 255
-20.497 -35.2791 25.8263  255 255 255
-48.053 -29.4882 4.27337  255 255 255
54.0233 10.0034 5.24106  255 255 255
-0.800128 54.808 -71.0476  255 255 255
-8.89557 -12.5797 34.8167  255 255 255
-1.75117 -15.4127 36.1849  255 255 255
-24.1331 -20.0053 28.3912  255 255 255
-20.2742 -23.5141 31.8519  255 255 255
13.4474 -32.9061 31.3805  255 255 255
0.533044 -40.2334 31.4058  255 255 255
-11.9005 -37.5134 31.0238  255 255 255
48.7308 28.0827 8.93294  255 255 255
24.9796 65.1782 -77.143  255 255 255
-48.7739 42.5527 -45.7919  255 255 255
-17.2406 23.008 -57.6913  255 255 255
58.5381 -16.9317 -1.99443  255 255 255
-43.9934 61.8165 -32.0139  255 255 255
60.0073 56.0844 -65.3286  255 255 255
19.8544 78.2512 -67.572  255 255 255
64.0749 88.7488 -95.9104  255 255 255
55.6668 0.557531 13.2241  255 255 255
14.7068 44.9647 -83.6886  255 255 255
28.0419 82.9564 -69.3619  255 255 255
68.2569 88.3752 -94.1663  255 255 255
12.7888 74.7183 -64.7405  255 255 255
12.2981 71.65 -67.0988  255 255 255
39.7139 77.4551 -83.963  255 255 255
43.5349 75.7778 -86.8589  255 255 255
-3.62892 66.4732 -59.0624  255 255 255
43.3143 74.6149 -87.2411  255 255 255
55.4974 10.1997 11.7527  255 255 255
38.6823 71.621 -86.8709  255 255 255
47.0072 67.4965 -97.0526  255 255 255
47.9322 29.7647 -35.4982  255 255 255
47.9149 29.3589 -34.8553  255 255 255
-13.4543 36.3904 -28.545  255 255 255
-3.41254 54.0701 -64.4249  255 255 255
62.3878 -6.41647 14.6036  255 255 255
62.3125 -6.87556 14.0936  255 255 255
62.6737 -7.12359 14.3664  255 255 255
61.8433 -8.17705 12.0496  255 255 255
64.3334 -10.6252 15.0041  255 255 255
49.2401 2.21326 -8.70669  255 255 255
48.8447 2.23709 -9.77963  255 255 255
51.2785 -1.9761 -7.12764  255 255 255
61.5936 -11.6853 8.70863  255 255 255
50.2167 -1.71967 -9.35371  255 255 255
61.6721 -15.4505 6.53292  255 255 255
61.7331 -15.9196 6.06327  255 255 255
61.6206 -17.4723 5.10354  255 255 255
-6.99378 -15.5305 35.2892  255 255 255
-6.99378 -15.5305 35.2892  255 255 255
61.3644 -18.7156 3.49781  255 255 255
61.4027 -19.023 3.68903  255 255 255
60.6424 -19.2657 1.79001  255 255 255
61.1877 -21.1213 1.40609  255 255 255
-14.1854 11.2741 -43.8936  255 255 255
-17.3206 8.18375 -40.7382  255 255 255
64.6869 -30.307 1.83365  255 255 255
52.6001 -30.5709 -2.53835  255 255 255
-38.1564 4.02422 -34.206  255 255 255
52.0656 -45.2493 13.4815  255 255 255
-10.0956 -34.9739 33.2566  255 255 255
46.1276 -52.1865 22.0541  255 255 255
-29.6563 -52.7354 29.553  255 255 255
49.0385 26.3404 8.10124  255 255 255
25.0745 73.923 -75.019  255 255 255
65.7878 78.4835 -100.847  255 255 255
68.4023 65.6669 -109.144  255 255 255
55.3888 3.10873 6.33247  255 255 255
49.6767 24.5139 -33.3603  255 255 255
48.7328 9.80731 -6.39535  255 255 255
46.5545 6.39436 -12.3819  255 255 255
66.4936 -12.8942 17.3733  255 255 255
49.3417 3.15726 -8.05637  255 255 255
30.2747 42.0096 -81.821  255 255 255
30.3608 42.1052 -82.0335  255 255 255
59.5967 -12.2918 4.98783  255 255 255
60.5105 -14.2032 5.4293  255 255 255
63.5077 -18.7779 7.77327  255 255 255
-33.8271 35.0297 -63.1537  255 255 255
61.7093 -18.2649 4.25934  255 255 255
62.4706 -26.8824 -0.229031  255 255 255
64.1123 -30.0786 1.08531  255 255 255
63.1657 -31.0928 -1.40923  255 255 255
61.4205 -29.8214 -4.36176  255 255 255
66.6833 -34.5157 2.88822  255 255 255
-41.9309 -19.8049 -6.74438  255 255 255
-1.42703 -42.6695 29.3314  255 255 255
-51.7307 -22.8115 -2.82698  255 255 255
8.72075 -61.7414 36.6683  255 255 255
-42.0266 -42.5958 18.487  255 255 255
9.96192 78.6691 -59.2052  255 255 255
27.6688 78.709 -72.8164  255 255 255
16.886 73.2347 -69.0496  255 255 255
40.0024 77.8497 -83.2875  255 255 255
51.0802 15.5137 5.14338  255 255 255
55.1263 10.3947 11.1802  255 255 255
74.9699 75.7777 -110.429  255 255 255
51.4984 11.6899 3.60283  255 255 255
61.1634 -3.0323 14.6742  255 255 255
52.5992 21.4325 -28.5598  255 255 255
60.9343 -4.01653 13.4006  255 255 255
9.54451 52.079 -82.9412  255 255 255
-16.1047 48.3378 -65.8203  255 255 255
65.5178 -12.3947 16.507  255 255 255
61.4058 -18.2415 4.0286  255 255 255
62.0506 -20.3317 4.09228  255 255 255
59.3707 -19.9596 -1.92865  255 255 255
57.9691 -21.2121 -6.08846  255 255 255
-16.8837 11.3711 -43.9385  255 255 255
49.3262 -52.0524 21.5675  255 255 255
45.3746 -52.368 22.293  255 255 255
-49.2523 -20.2067 -4.90842  255 255 255
2.82089 -59.3493 34.3321  255 255 255
-37.68 -51.9073 28.9789  255 255 255
28.5072 81.9471 -71.1576  255 255 255
48.9146 41.938 -22.63  255 255 255
49.6995 16.1301 2.61853  255 255 255
49.1913 11.4479 -2.0947  255 255 255
-7.07917 -7.87996 33.3955  255 255 255
61.0833 -12.9228 6.85499  255 255 255
64.9439 -27.4166 5.01207  255 255 255
-19.1682 8.19531 -41.2943  255 255 255
-40.278 -17.5945 -9.73614  255 255 255
-53.7485 -19.2016 -6.50797  255 255 255
19.7752 -61.5245 36.0294  255 255 255
-21.5836 -46.377 24.9903  255 255 255
16.679 -64.6863 39.4024  255 255 255
9.67913 50.5 -83.2824  255 255 255
19.8039 34.3104 -72.4029  255 255 255
63.5187 -18.3718 8.60987  255 255 255
56.7971 -16.1747 -4.63824  255 255 255
-20.1374 26.9663 -61.5374  255 255 255
20.7857 -62.7408 36.7371  255 255 255
54.3923 -5.12052 -1.6116  255 255 255
-6.22602 55.0802 -63.7147  255 255 255
-19.0888 -42.3453 28.3704  255 255 255
